ply
format ascii 1.0
element vertex 530
property float x
property float y
property float z
property uchar red
property uchar green
property uchar blue
end_header
40.6265983581543 28.345699310302734 -1.1080399751663208 192 192 192
40.0713996887207 30.444299697875977 -1.1080399751663208 192 192 192
40.71549987792969 31.143800735473633 -1.1080399751663208 192 192 192
42.025699615478516 30.444299697875977 -1.1080399751663208 192 192 192
43.469200134277344 28.345699310302734 -1.1080399751663208 192 192 192
37.54249954223633 28.345699310302734 14.511699676513672 192 192 192
37.03030014038086 30.444299697875977 14.293800354003906 192 192 192
37.6244010925293 31.143800735473633 14.546600341796875 192 192 192
38.833099365234375 30.444299697875977 15.06089973449707 192 192 192
40.16469955444336 28.345699310302734 15.627400398254395 192 192 192
29.085899353027344 28.345699310302734 27.146799087524414 192 192 192
28.691699981689453 30.444299697875977 26.752700805664062 192 192 192
29.14900016784668 31.143800735473633 27.20989990234375 192 192 192
30.079200744628906 30.444299697875977 28.140199661254883 192 192 192
31.10409927368164 28.345699310302734 29.165000915527344 192 192 192
16.4507999420166 28.345699310302734 35.60340118408203 192 192 192
16.232900619506836 30.444299697875977 35.09120178222656 192 192 192
16.485700607299805 31.143800735473633 35.685298919677734 192 192 192
16.999900817871094 30.444299697875977 36.89400100708008 192 192 192
17.566499710083008 28.345699310302734 38.22560119628906 192 192 192
0.8310250043869019 28.345699310302734 38.687599182128906 192 192 192
0.8310250043869019 30.444299697875977 38.13240051269531 192 192 192
0.8310250043869019 31.143800735473633 38.77640151977539 192 192 192
0.8310250043869019 30.444299697875977 40.08660125732422 192 192 192
0.8310250043869019 28.345699310302734 41.53010177612305 192 192 192
-15.868000030517578 28.345699310302734 35.60340118408203 192 192 192
-15.026200294494629 30.444299697875977 35.09120178222656 192 192 192
-14.958499908447266 31.143800735473633 35.685298919677734 192 192 192
-15.354700088500977 30.444299697875977 36.89400100708008 192 192 192
-15.904399871826172 28.345699310302734 38.22560119628906 192 192 192
-28.38319969177246 28.345699310302734 27.146799087524414 192 192 192
-27.43440055847168 30.444299697875977 26.752700805664062 192 192 192
-27.606800079345703 31.143800735473633 27.20989990234375 192 192 192
-28.432199478149414 30.444299697875977 28.140199661254883 192 192 192
-29.442100524902344 28.345699310302734 29.165000915527344 192 192 192
-36.24020004272461 28.345699310302734 14.511699676513672 192 192 192
-35.52000045776367 30.444299697875977 14.293800354003906 192 192 192
-36.007301330566406 31.143800735473633 14.546600341796875 192 192 192
-37.176700592041016 30.444299697875977 15.06089973449707 192 192 192
-38.50270080566406 28.345699310302734 15.627400398254395 192 192 192
-38.964599609375 28.345699310302734 -1.1080399751663208 192 192 192
-38.409400939941406 30.444299697875977 -1.1080399751663208 192 192 192
-39.05339813232422 31.143800735473633 -1.1080399751663208 192 192 192
-40.36360168457031 30.444299697875977 -1.1080399751663208 192 192 192
-41.807098388671875 28.345699310302734 -1.1080399751663208 192 192 192
-35.880401611328125 28.345699310302734 -16.727800369262695 192 192 192
-35.36830139160156 30.444299697875977 -16.509899139404297 192 192 192
-35.962398529052734 31.143800735473633 -16.762699127197266 192 192 192
-37.17110061645508 30.444299697875977 -17.276899337768555 192 192 192
-38.50270080566406 28.345699310302734 -17.8435001373291 192 192 192
-27.423799514770508 28.345699310302734 -29.362899780273438 192 192 192
-27.029699325561523 30.444299697875977 -28.968700408935547 192 192 192
-27.486900329589844 31.143800735473633 -29.426000595092773 192 192 192
-28.417200088500977 30.444299697875977 -30.356199264526367 192 192 192
-29.442100524902344 28.345699310302734 -31.381099700927734 192 192 192
-14.788700103759766 28.345699310302734 -37.81949996948242 192 192 192
-14.570799827575684 30.444299697875977 -37.30730056762695 192 192 192
-14.823599815368652 31.143800735473633 -37.90140151977539 192 192 192
-15.337900161743164 30.444299697875977 -39.11009979248047 192 192 192
-15.904399871826172 28.345699310302734 -40.44169998168945 192 192 192
0.8310250043869019 28.345699310302734 -40.90359878540039 192 192 192
0.8310250043869019 30.444299697875977 -40.3484001159668 192 192 192
0.8310250043869019 31.143800735473633 -40.99250030517578 192 192 192
0.8310250043869019 30.444299697875977 -42.30270004272461 192 192 192
0.8310250043869019 28.345699310302734 -43.74620056152344 192 192 192
16.4507999420166 28.345699310302734 -37.81949996948242 192 192 192
16.232900619506836 30.444299697875977 -37.30730056762695 192 192 192
16.485700607299805 31.143800735473633 -37.90140151977539 192 192 192
16.999900817871094 30.444299697875977 -39.11009979248047 192 192 192
17.566499710083008 28.345699310302734 -40.44169998168945 192 192 192
29.085899353027344 28.345699310302734 -29.362899780273438 192 192 192
28.691699981689453 30.444299697875977 -28.968700408935547 192 192 192
29.14900016784668 31.143800735473633 -29.426000595092773 192 192 192
30.079200744628906 30.444299697875977 -30.356199264526367 192 192 192
31.10409927368164 28.345699310302734 -31.381099700927734 192 192 192
37.54249954223633 28.345699310302734 -16.727800369262695 192 192 192
37.03030014038086 30.444299697875977 -16.509899139404297 192 192 192
37.6244010925293 31.143800735473633 -16.762699127197266 192 192 192
38.833099365234375 30.444299697875977 -17.276899337768555 192 192 192
40.16469955444336 28.345699310302734 -17.8435001373291 192 192 192
48.68790054321289 17.186500549316406 -1.1080399751663208 192 192 192
53.24039840698242 6.227139949798584 -1.1080399751663208 192 192 192
56.46049880981445 -4.332459926605225 -1.1080399751663208 192 192 192
57.68190002441406 -14.292499542236328 -1.1080399751663208 192 192 192
44.979000091552734 17.186500549316406 17.675800323486328 192 192 192
49.1786994934082 6.227139949798584 19.462600708007812 192 192 192
52.149200439453125 -4.332459926605225 20.726499557495117 192 192 192
53.275901794433594 -14.292499542236328 21.205900192260742 192 192 192
34.80939865112305 17.186500549316406 32.87030029296875 192 192 192
38.04169845581055 6.227139949798584 36.10260009765625 192 192 192
40.32789993286133 -4.332459926605225 38.38890075683594 192 192 192
41.195098876953125 -14.292499542236328 39.256099700927734 192 192 192
19.61479949951172 17.186500549316406 43.03990173339844 192 192 192
21.40169906616211 6.227139949798584 47.239601135253906 192 192 192
22.665599822998047 -4.332459926605225 50.21009826660156 192 192 192
23.145000457763672 -14.292499542236328 51.33689880371094 192 192 192
0.8310250043869019 17.186500549316406 46.74879837036133 192 192 192
0.8310250043869019 6.227139949798584 51.301300048828125 192 192 192
0.8310250043869019 -4.332459926605225 54.521400451660156 192 192 192
0.8310250043869019 -14.292499542236328 55.742801666259766 192 192 192
-17.952800750732422 17.186500549316406 43.03990173339844 192 192 192
-19.739700317382812 6.227139949798584 47.239601135253906 192 192 192
-21.00349998474121 -4.332459926605225 50.21009826660156 192 192 192
-21.482900619506836 -14.292499542236328 51.33689880371094 192 192 192
-33.14739990234375 17.186500549316406 32.87030029296875 192 192 192
-36.379600524902344 6.227139949798584 36.10260009765625 192 192 192
-38.66590118408203 -4.332459926605225 38.38890075683594 192 192 192
-39.53310012817383 -14.292499542236328 39.256099700927734 192 192 192
-43.316898345947266 17.186500549316406 17.675800323486328 192 192 192
-47.5166015625 6.227139949798584 19.462600708007812 192 192 192
-50.487098693847656 -4.332459926605225 20.726499557495117 192 192 192
-51.61389923095703 -14.292499542236328 21.205900192260742 192 192 192
-47.02579879760742 17.186500549316406 -1.1080399751663208 192 192 192
-51.578399658203125 6.227139949798584 -1.1080399751663208 192 192 192
-54.79840087890625 -4.332459926605225 -1.1080399751663208 192 192 192
-56.019798278808594 -14.292499542236328 -1.1080399751663208 192 192 192
-43.316898345947266 17.186500549316406 -19.89189910888672 192 192 192
-47.5166015625 6.227139949798584 -21.678699493408203 192 192 192
-50.487098693847656 -4.332459926605225 -22.94260025024414 192 192 192
-51.61389923095703 -14.292499542236328 -23.422000885009766 192 192 192
-33.14739990234375 17.186500549316406 -35.08639907836914 192 192 192
-36.379600524902344 6.227139949798584 -38.31869888305664 192 192 192
-38.66590118408203 -4.332459926605225 -40.60490036010742 192 192 192
-39.53310012817383 -14.292499542236328 -41.47209930419922 192 192 192
-17.952800750732422 17.186500549316406 -45.25600051879883 192 192 192
-19.739700317382812 6.227139949798584 -49.4556999206543 192 192 192
-21.00349998474121 -4.332459926605225 -52.42620086669922 192 192 192
-21.482900619506836 -14.292499542236328 -53.55289840698242 192 192 192
0.8310250043869019 17.186500549316406 -48.964900970458984 192 192 192
0.8310250043869019 6.227139949798584 -53.517398834228516 192 192 192
0.8310250043869019 -4.332459926605225 -56.73749923706055 192 192 192
0.8310250043869019 -14.292499542236328 -57.958900451660156 192 192 192
19.61479949951172 17.186500549316406 -45.25600051879883 192 192 192
21.40169906616211 6.227139949798584 -49.4556999206543 192 192 192
22.665599822998047 -4.332459926605225 -52.42620086669922 192 192 192
23.145000457763672 -14.292499542236328 -53.55289840698242 192 192 192
34.80939865112305 17.186500549316406 -35.08639907836914 192 192 192
38.04169845581055 6.227139949798584 -38.31869888305664 192 192 192
40.32789993286133 -4.332459926605225 -40.60490036010742 192 192 192
41.195098876953125 -14.292499542236328 -41.47209930419922 192 192 192
44.979000091552734 17.186500549316406 -19.89189910888672 192 192 192
49.1786994934082 6.227139949798584 -21.678699493408203 192 192 192
52.149200439453125 -4.332459926605225 -22.94260025024414 192 192 192
53.275901794433594 -14.292499542236328 -23.422000885009766 192 192 192
55.46110153198242 -22.720199584960938 -1.1080399751663208 192 192 192
50.57550048828125 -28.94930076599121 -1.1080399751663208 192 192 192
45.68989944458008 -33.1797981262207 -1.1080399751663208 192 192 192
43.469200134277344 -35.61149978637695 -1.1080399751663208 192 192 192
51.227298736572266 -22.720199584960938 20.334299087524414 192 192 192
46.720298767089844 -28.94930076599121 18.41670036315918 192 192 192
42.21329879760742 -33.1797981262207 16.499099731445312 192 192 192
40.16469955444336 -35.61149978637695 15.627400398254395 192 192 192
39.61840057373047 -22.720199584960938 37.679298400878906 192 192 192
36.149600982666016 -28.94930076599121 34.210601806640625 192 192 192
32.68080139160156 -33.1797981262207 30.74180030822754 192 192 192
31.10409927368164 -35.61149978637695 29.165000915527344 192 192 192
22.273300170898438 -22.720199584960938 49.28820037841797 192 192 192
20.35569953918457 -28.94930076599121 44.78129959106445 192 192 192
18.438100814819336 -33.1797981262207 40.27429962158203 192 192 192
17.566499710083008 -35.61149978637695 38.22560119628906 192 192 192
0.8310250043869019 -22.720199584960938 53.522098541259766 192 192 192
0.8310250043869019 -28.94930076599121 48.63650131225586 192 192 192
0.8310250043869019 -33.1797981262207 43.75080108642578 192 192 192
0.8310250043869019 -35.61149978637695 41.53010177612305 192 192 192
-20.611299514770508 -22.720199584960938 49.28820037841797 192 192 192
-18.693700790405273 -28.94930076599121 44.78129959106445 192 192 192
-16.776100158691406 -33.1797981262207 40.27429962158203 192 192 192
-15.904399871826172 -35.61149978637695 38.22560119628906 192 192 192
-37.95640182495117 -22.720199584960938 37.679298400878906 192 192 192
-34.48759841918945 -28.94930076599121 34.210601806640625 192 192 192
-31.018800735473633 -33.1797981262207 30.74180030822754 192 192 192
-29.442100524902344 -35.61149978637695 29.165000915527344 192 192 192
-49.56529998779297 -22.720199584960938 20.334299087524414 192 192 192
-45.05830001831055 -28.94930076599121 18.41670036315918 192 192 192
-40.551300048828125 -33.1797981262207 16.499099731445312 192 192 192
-38.50270080566406 -35.61149978637695 15.627400398254395 192 192 192
-53.79909896850586 -22.720199584960938 -1.1080399751663208 192 192 192
-48.91350173950195 -28.94930076599121 -1.1080399751663208 192 192 192
-44.02790069580078 -33.1797981262207 -1.1080399751663208 192 192 192
-41.807098388671875 -35.61149978637695 -1.1080399751663208 192 192 192
-49.56529998779297 -22.720199584960938 -22.550399780273438 192 192 192
-45.05830001831055 -28.94930076599121 -20.632699966430664 192 192 192
-40.551300048828125 -33.1797981262207 -18.715099334716797 192 192 192
-38.50270080566406 -35.61149978637695 -17.8435001373291 192 192 192
-37.95640182495117 -22.720199584960938 -39.89540100097656 192 192 192
-34.48759841918945 -28.94930076599121 -36.42660140991211 192 192 192
-31.018800735473633 -33.1797981262207 -32.957801818847656 192 192 192
-29.442100524902344 -35.61149978637695 -31.381099700927734 192 192 192
-20.611299514770508 -22.720199584960938 -51.50429916381836 192 192 192
-18.693700790405273 -28.94930076599121 -46.99729919433594 192 192 192
-16.776100158691406 -33.1797981262207 -42.490299224853516 192 192 192
-15.904399871826172 -35.61149978637695 -40.44169998168945 192 192 192
0.8310250043869019 -22.720199584960938 -55.73820114135742 192 192 192
0.8310250043869019 -28.94930076599121 -50.852500915527344 192 192 192
0.8310250043869019 -33.1797981262207 -45.96689987182617 192 192 192
0.8310250043869019 -35.61149978637695 -43.74620056152344 192 192 192
22.273300170898438 -22.720199584960938 -51.50429916381836 192 192 192
20.35569953918457 -28.94930076599121 -46.99729919433594 192 192 192
18.438100814819336 -33.1797981262207 -42.490299224853516 192 192 192
17.566499710083008 -35.61149978637695 -40.44169998168945 192 192 192
39.61840057373047 -22.720199584960938 -39.89540100097656 192 192 192
36.149600982666016 -28.94930076599121 -36.42660140991211 192 192 192
32.68080139160156 -33.1797981262207 -32.957801818847656 192 192 192
31.10409927368164 -35.61149978637695 -31.381099700927734 192 192 192
51.227298736572266 -22.720199584960938 -22.550399780273438 192 192 192
46.720298767089844 -28.94930076599121 -20.632699966430664 192 192 192
42.21329879760742 -33.1797981262207 -18.715099334716797 192 192 192
40.16469955444336 -35.61149978637695 -17.8435001373291 192 192 192
42.50310134887695 -37.17720031738281 -1.1080399751663208 192 192 192
37.339900970458984 -38.54290008544922 -1.1080399751663208 192 192 192
24.58180046081543 -39.5088996887207 -1.1080399751663208 192 192 192
0.8310250043869019 -39.87540054321289 -1.1080399751663208 192 192 192
39.27360153198242 -37.17720031738281 15.248299598693848 192 192 192
34.510501861572266 -38.54290008544922 13.221699714660645 192 192 192
22.741100311279297 -39.5088996887207 8.214139938354492 192 192 192
30.41819953918457 -37.17720031738281 28.47920036315918 192 192 192
26.752300262451172 -38.54290008544922 24.81329917907715 192 192 192
17.69409942626953 -39.5088996887207 15.755000114440918 192 192 192
17.187299728393555 -37.17720031738281 37.33449935913086 192 192 192
15.160799980163574 -38.54290008544922 32.5713996887207 192 192 192
10.153200149536133 -39.5088996887207 20.802099227905273 192 192 192
0.8310250043869019 -37.17720031738281 40.5640983581543 192 192 192
0.8310250043869019 -38.54290008544922 35.400901794433594 192 192 192
0.8310250043869019 -39.5088996887207 22.6427001953125 192 192 192
-15.525300025939941 -37.17720031738281 37.33449935913086 192 192 192
-13.498700141906738 -38.54290008544922 32.5713996887207 192 192 192
-8.49114990234375 -39.5088996887207 20.802099227905273 192 192 192
-28.756200790405273 -37.17720031738281 28.47920036315918 192 192 192
-25.090299606323242 -38.54290008544922 24.81329917907715 192 192 192
-16.031999588012695 -39.5088996887207 15.755000114440918 192 192 192
-37.61149978637695 -37.17720031738281 15.248299598693848 192 192 192
-32.8484001159668 -38.54290008544922 13.221699714660645 192 192 192
-21.079099655151367 -39.5088996887207 8.214139938354492 192 192 192
-40.84109878540039 -37.17720031738281 -1.1080399751663208 192 192 192
-35.67789840698242 -38.54290008544922 -1.1080399751663208 192 192 192
-22.9197998046875 -39.5088996887207 -1.1080399751663208 192 192 192
-37.61149978637695 -37.17720031738281 -17.46430015563965 192 192 192
-32.8484001159668 -38.54290008544922 -15.437800407409668 192 192 192
-21.079099655151367 -39.5088996887207 -10.43019962310791 192 192 192
-28.756200790405273 -37.17720031738281 -30.695199966430664 192 192 192
-25.090299606323242 -38.54290008544922 -27.029399871826172 192 192 192
-16.031999588012695 -39.5088996887207 -17.971099853515625 192 192 192
-15.525300025939941 -37.17720031738281 -39.55059814453125 192 192 192
-13.498700141906738 -38.54290008544922 -34.787498474121094 192 192 192
-8.49114990234375 -39.5088996887207 -23.01810073852539 192 192 192
0.8310250043869019 -37.17720031738281 -42.78020095825195 192 192 192
0.8310250043869019 -38.54290008544922 -37.61690139770508 192 192 192
0.8310250043869019 -39.5088996887207 -24.858800888061523 192 192 192
17.187299728393555 -37.17720031738281 -39.55059814453125 192 192 192
15.160799980163574 -38.54290008544922 -34.787498474121094 192 192 192
10.153200149536133 -39.5088996887207 -23.01810073852539 192 192 192
30.41819953918457 -37.17720031738281 -30.695199966430664 192 192 192
26.752300262451172 -38.54290008544922 -27.029399871826172 192 192 192
17.69409942626953 -39.5088996887207 -17.971099853515625 192 192 192
39.27360153198242 -37.17720031738281 -17.46430015563965 192 192 192
34.510501861572266 -38.54290008544922 -15.437800407409668 192 192 192
22.741100311279297 -39.5088996887207 -10.43019962310791 192 192 192
-44.64970016479492 17.686100006103516 -1.1080399751663208 192 192 192
-57.9296989440918 17.586200714111328 -1.1080399751663208 192 192 192
-67.74530029296875 16.886699676513672 -1.1080399751663208 192 192 192
-73.8301010131836 14.987899780273438 -1.1080399751663208 192 192 192
-75.9176025390625 11.290399551391602 -1.1080399751663208 192 192 192
-44.205501556396484 18.68549919128418 3.6887600421905518 192 192 192
-58.325199127197266 18.569900512695312 3.6887600421905518 192 192 192
-68.68910217285156 17.76110076904297 3.6887600421905518 192 192 192
-75.07240295410156 15.565699577331543 3.6887600421905518 192 192 192
-77.2500991821289 11.290399551391602 3.6887600421905518 192 192 192
-43.22840118408203 20.884000778198242 5.287690162658691 192 192 192
-59.195499420166016 20.734100341796875 5.287690162658691 192 192 192
-70.7655029296875 19.684799194335938 5.287690162658691 192 192 192
-77.8052978515625 16.836700439453125 5.287690162658691 192 192 192
-80.181396484375 11.290399551391602 5.287690162658691 192 192 192
-42.25130081176758 23.082500457763672 3.6887600421905518 192 192 192
-60.06570053100586 22.898300170898438 3.6887600421905518 192 192 192
-72.84190368652344 21.60849952697754 3.6887600421905518 192 192 192
-80.53810119628906 18.10770034790039 3.6887600421905518 192 192 192
-83.11280059814453 11.290399551391602 3.6887600421905518 192 192 192
-41.807098388671875 24.081899642944336 -1.1080399751663208 192 192 192
-60.461299896240234 23.881999969482422 -1.1080399751663208 192 192 192
-73.78569793701172 22.482900619506836 -1.1080399751663208 192 192 192
-81.78040313720703 18.68549919128418 -1.1080399751663208 192 192 192
-84.44529724121094 11.290399551391602 -1.1080399751663208 192 192 192
-42.25130081176758 23.082500457763672 -5.904829978942871 192 192 192
-60.06570053100586 22.898300170898438 -5.904829978942871 192 192 192
-72.84190368652344 21.60849952697754 -5.904829978942871 192 192 192
-80.53810119628906 18.10770034790039 -5.904829978942871 192 192 192
-83.11280059814453 11.290399551391602 -5.904829978942871 192 192 192
-43.22840118408203 20.884000778198242 -7.503759860992432 192 192 192
-59.195499420166016 20.734100341796875 -7.503759860992432 192 192 192
-70.7655029296875 19.684799194335938 -7.503759860992432 192 192 192
-77.8052978515625 16.836700439453125 -7.503759860992432 192 192 192
-80.181396484375 11.290399551391602 -7.503759860992432 192 192 192
-44.205501556396484 18.68549919128418 -5.904829978942871 192 192 192
-58.325199127197266 18.569900512695312 -5.904829978942871 192 192 192
-68.68910217285156 17.76110076904297 -5.904829978942871 192 192 192
-75.07240295410156 15.565699577331543 -5.904829978942871 192 192 192
-77.2500991821289 11.290399551391602 -5.904829978942871 192 192 192
-74.80729675292969 5.49429988861084 -1.1080399751663208 192 192 192
-71.29850006103516 -1.5010299682617188 -1.1080399751663208 192 192 192
-65.12480163574219 -8.496339797973633 -1.1080399751663208 192 192 192
-56.019798278808594 -14.292499542236328 -1.1080399751663208 192 192 192
-76.01830291748047 4.934770107269287 3.6887600421905518 192 192 192
-72.15899658203125 -2.3546199798583984 3.6887600421905518 192 192 192
-65.42669677734375 -9.55033016204834 3.6887600421905518 192 192 192
-55.57569885253906 -15.624899864196777 3.6887600421905518 192 192 192
-78.68240356445312 3.7038300037384033 5.287690162658691 192 192 192
-74.05220031738281 -4.232530117034912 5.287690162658691 192 192 192
-66.09089660644531 -11.869099617004395 5.287690162658691 192 192 192
-54.59859848022461 -18.556299209594727 5.287690162658691 192 192 192
-81.34660339355469 2.4728798866271973 3.6887600421905518 192 192 192
-75.94539642333984 -6.110439777374268 3.6887600421905518 192 192 192
-66.75499725341797 -14.187800407409668 3.6887600421905518 192 192 192
-53.62139892578125 -21.487699508666992 3.6887600421905518 192 192 192
-82.55760192871094 1.9133599996566772 -1.1080399751663208 192 192 192
-76.80590057373047 -6.9640398025512695 -1.1080399751663208 192 192 192
-67.05690002441406 -15.241800308227539 -1.1080399751663208 192 192 192
-53.17729949951172 -22.820100784301758 -1.1080399751663208 192 192 192
-81.34660339355469 2.4728798866271973 -5.904829978942871 192 192 192
-75.94539642333984 -6.110439777374268 -5.904829978942871 192 192 192
-66.75499725341797 -14.187800407409668 -5.904829978942871 192 192 192
-53.62139892578125 -21.487699508666992 -5.904829978942871 192 192 192
-78.68240356445312 3.7038300037384033 -7.503759860992432 192 192 192
-74.05220031738281 -4.232530117034912 -7.503759860992432 192 192 192
-66.09089660644531 -11.869099617004395 -7.503759860992432 192 192 192
-54.59859848022461 -18.556299209594727 -7.503759860992432 192 192 192
-76.01830291748047 4.934770107269287 -5.904829978942871 192 192 192
-72.15899658203125 -2.3546199798583984 -5.904829978942871 192 192 192
-65.42669677734375 -9.55033016204834 -5.904829978942871 192 192 192
-55.57569885253906 -15.624899864196777 -5.904829978942871 192 192 192
49.154300689697266 0.6308820247650146 -1.1080399751663208 192 192 192
62.78960037231445 3.762120008468628 -1.1080399751663208 192 192 192
68.69670104980469 11.290399551391602 -1.1080399751663208 192 192 192
71.93900299072266 20.417600631713867 -1.1080399751663208 192 192 192
77.57969665527344 28.345699310302734 -1.1080399751663208 192 192 192
49.154300689697266 -3.033329963684082 9.444899559020996 192 192 192
63.830501556396484 1.0451899766921997 8.4205904006958 192 192 192
70.0291976928711 9.70814037322998 6.167099952697754 192 192 192
73.56289672851562 19.84510040283203 3.9136099815368652 192 192 192
80.24459838867188 28.345699310302734 2.8892900943756104 192 192 192
49.154300689697266 -11.094599723815918 12.962599754333496 192 192 192
66.12069702148438 -4.9320597648620605 11.596799850463867 192 192 192
72.96050262451172 6.227139949798584 8.592140197753906 192 192 192
77.135498046875 18.585500717163086 5.587490081787109 192 192 192
86.1072998046875 28.345699310302734 4.2217302322387695 192 192 192
49.154300689697266 -19.155899047851562 9.444899559020996 192 192 192
68.41079711914062 -10.909299850463867 8.4205904006958 192 192 192
75.89189910888672 2.7461400032043457 6.167099952697754 192 192 192
80.70809936523438 17.326000213623047 3.9136099815368652 192 192 192
91.97000122070312 28.345699310302734 2.8892900943756104 192 192 192
49.154300689697266 -22.820100784301758 -1.1080399751663208 192 192 192
69.45179748535156 -13.626199722290039 -1.1080399751663208 192 192 192
77.22440338134766 1.1638599634170532 -1.1080399751663208 192 192 192
82.33209991455078 16.753400802612305 -1.1080399751663208 192 192 192
94.63490295410156 28.345699310302734 -1.1080399751663208 192 192 192
49.154300689697266 -19.155899047851562 -11.66100025177002 192 192 192
68.41079711914062 -10.909299850463867 -10.636699676513672 192 192 192
75.89189910888672 2.7461400032043457 -8.383170127868652 192 192 192
80.70809936523438 17.326000213623047 -6.129680156707764 192 192 192
91.97000122070312 28.345699310302734 -5.10536003112793 192 192 192
49.154300689697266 -11.094599723815918 -15.178600311279297 192 192 192
66.12069702148438 -4.9320597648620605 -13.812899589538574 192 192 192
72.96050262451172 6.227139949798584 -10.808199882507324 192 192 192
77.135498046875 18.585500717163086 -7.80355978012085 192 192 192
86.1072998046875 28.345699310302734 -6.43779993057251 192 192 192
49.154300689697266 -3.033329963684082 -11.66100025177002 192 192 192
63.830501556396484 1.0451899766921997 -10.636699676513672 192 192 192
70.0291976928711 9.70814037322998 -8.383170127868652 192 192 192
73.56289672851562 19.84510040283203 -6.129680156707764 192 192 192
80.24459838867188 28.345699310302734 -5.10536003112793 192 192 192
79.6227035522461 29.54490089416504 -1.1080399751663208 192 192 192
81.13289642333984 29.944599151611328 -1.1080399751663208 192 192 192
81.5770034790039 29.54490089416504 -1.1080399751663208 192 192 192
80.42220306396484 28.345699310302734 -1.1080399751663208 192 192 192
82.47669982910156 29.6033992767334 2.6394600868225098 192 192 192
83.81159973144531 30.038299560546875 2.089829921722412 192 192 192
83.85150146484375 29.626800537109375 1.5401899814605713 192 192 192
82.19879913330078 28.345699310302734 1.2903599739074707 192 192 192
88.75550079345703 29.732200622558594 3.888619899749756 192 192 192
89.70490264892578 30.244400024414062 3.155780076980591 192 192 192
88.85549926757812 29.807199478149414 2.4229400157928467 192 192 192
86.1072998046875 28.345699310302734 2.089829921722412 192 192 192
95.0343017578125 29.861099243164062 2.6394600868225098 192 192 192
95.59819793701172 30.45050048828125 2.089829921722412 192 192 192
93.8593978881836 29.987499237060547 1.5401899814605713 192 192 192
90.01580047607422 28.345699310302734 1.2903599739074707 192 192 192
97.88829803466797 29.919599533081055 -1.1080399751663208 192 192 192
98.27690124511719 30.544200897216797 -1.1080399751663208 192 192 192
96.13390350341797 30.069499969482422 -1.1080399751663208 192 192 192
91.79239654541016 28.345699310302734 -1.1080399751663208 192 192 192
95.0343017578125 29.861099243164062 -4.85552978515625 192 192 192
95.59819793701172 30.45050048828125 -4.3059000968933105 192 192 192
93.8593978881836 29.987499237060547 -3.7562599182128906 192 192 192
90.01580047607422 28.345699310302734 -3.50642991065979 192 192 192
88.75550079345703 29.732200622558594 -6.104690074920654 192 192 192
89.70490264892578 30.244400024414062 -5.37185001373291 192 192 192
88.85549926757812 29.807199478149414 -4.639009952545166 192 192 192
86.1072998046875 28.345699310302734 -4.3059000968933105 192 192 192
82.47669982910156 29.6033992767334 -4.85552978515625 192 192 192
83.81159973144531 30.038299560546875 -4.3059000968933105 192 192 192
83.85150146484375 29.626800537109375 -3.7562599182128906 192 192 192
82.19879913330078 28.345699310302734 -3.50642991065979 192 192 192
0.8310250043869019 49.66469955444336 -1.1080399751663208 192 192 192
10.513400077819824 48.26570129394531 -1.1080399751663208 192 192 192
10.069299697875977 44.86800003051758 -1.1080399751663208 192 192 192
6.427279949188232 40.670799255371094 -1.1080399751663208 192 192 192
6.516109943389893 36.87329864501953 -1.1080399751663208 192 192 192
9.766420364379883 48.26570129394531 2.702430009841919 192 192 192
9.35632038116455 44.86800003051758 2.526979923248291 192 192 192
5.994699954986572 40.670799255371094 1.0918699502944946 192 192 192
6.075520038604736 36.87329864501953 1.12336003780365 192 192 192
7.714529991149902 48.26570129394531 5.775469779968262 192 192 192
7.398190021514893 44.86800003051758 5.459129810333252 192 192 192
4.8073601722717285 40.670799255371094 2.868299961090088 192 192 192
4.867440223693848 36.87329864501953 2.928380012512207 192 192 192
4.6414899826049805 48.26570129394531 7.827360153198242 192 192 192
4.466040134429932 44.86800003051758 7.41726016998291 192 192 192
3.0309300422668457 40.670799255371094 4.05564022064209 192 192 192
3.062419891357422 36.87329864501953 4.136459827423096 192 192 192
0.8310250043869019 48.26570129394531 8.574379920959473 192 192 192
0.8310250043869019 44.86800003051758 8.130229949951172 192 192 192
0.8310250043869019 40.670799255371094 4.48822021484375 192 192 192
0.8310250043869019 36.87329864501953 4.57705020904541 192 192 192
-2.9794399738311768 48.26570129394531 7.827360153198242 192 192 192
-2.803989887237549 44.86800003051758 7.41726016998291 192 192 192
-1.368880033493042 40.670799255371094 4.05564022064209 192 192 192
-1.4003700017929077 36.87329864501953 4.136459827423096 192 192 192
-6.052480220794678 48.26570129394531 5.775469779968262 192 192 192
-5.73613977432251 44.86800003051758 5.459129810333252 192 192 192
-3.1453099250793457 40.670799255371094 2.868299961090088 192 192 192
-3.205389976501465 36.87329864501953 2.928380012512207 192 192 192
-8.1043701171875 48.26570129394531 2.702430009841919 192 192 192
-7.694270133972168 44.86800003051758 2.526979923248291 192 192 192
-4.332650184631348 40.670799255371094 1.0918699502944946 192 192 192
-4.4134697914123535 36.87329864501953 1.12336003780365 192 192 192
-8.85138988494873 48.26570129394531 -1.1080399751663208 192 192 192
-8.40723991394043 44.86800003051758 -1.1080399751663208 192 192 192
-4.765230178833008 40.670799255371094 -1.1080399751663208 192 192 192
-4.854060173034668 36.87329864501953 -1.1080399751663208 192 192 192
-8.1043701171875 48.26570129394531 -4.918499946594238 192 192 192
-7.694270133972168 44.86800003051758 -4.7430500984191895 192 192 192
-4.332650184631348 40.670799255371094 -3.3079400062561035 192 192 192
-4.4134697914123535 36.87329864501953 -3.339430093765259 192 192 192
-6.052480220794678 48.26570129394531 -7.99153995513916 192 192 192
-5.73613977432251 44.86800003051758 -7.67519998550415 192 192 192
-3.1453099250793457 40.670799255371094 -5.084370136260986 192 192 192
-3.205389976501465 36.87329864501953 -5.1444501876831055 192 192 192
-2.9794399738311768 48.26570129394531 -10.043399810791016 192 192 192
-2.803989887237549 44.86800003051758 -9.633330345153809 192 192 192
-1.368880033493042 40.670799255371094 -6.27170991897583 192 192 192
-1.4003700017929077 36.87329864501953 -6.352530002593994 192 192 192
0.8310250043869019 48.26570129394531 -10.790399551391602 192 192 192
0.8310250043869019 44.86800003051758 -10.34630012512207 192 192 192
0.8310250043869019 40.670799255371094 -6.70428991317749 192 192 192
0.8310250043869019 36.87329864501953 -6.79311990737915 192 192 192
4.6414899826049805 48.26570129394531 -10.043399810791016 192 192 192
4.466040134429932 44.86800003051758 -9.633330345153809 192 192 192
3.0309300422668457 40.670799255371094 -6.27170991897583 192 192 192
3.062419891357422 36.87329864501953 -6.352530002593994 192 192 192
7.714529991149902 48.26570129394531 -7.99153995513916 192 192 192
7.398190021514893 44.86800003051758 -7.67519998550415 192 192 192
4.8073601722717285 40.670799255371094 -5.084370136260986 192 192 192
4.867440223693848 36.87329864501953 -5.1444501876831055 192 192 192
9.766420364379883 48.26570129394531 -4.918499946594238 192 192 192
9.35632038116455 44.86800003051758 -4.7430500984191895 192 192 192
5.994699954986572 40.670799255371094 -3.3079400062561035 192 192 192
6.075520038604736 36.87329864501953 -3.339430093765259 192 192 192
13.800100326538086 34.34170150756836 -1.1080399751663208 192 192 192
24.281999588012695 32.609500885009766 -1.1080399751663208 192 192 192
33.697898864746094 30.877300262451172 -1.1080399751663208 192 192 192
37.78409957885742 28.345699310302734 -1.1080399751663208 192 192 192
12.795000076293945 34.34170150756836 3.982340097427368 192 192 192
22.464599609375 32.609500885009766 8.09646987915039 192 192 192
31.150699615478516 30.877300262451172 11.792200088500977 192 192 192
34.92020034790039 28.345699310302734 13.395999908447266 192 192 192
10.03909969329834 34.34170150756836 8.100029945373535 192 192 192
17.481199264526367 32.609500885009766 15.542200088500977 192 192 192
24.166500091552734 30.877300262451172 22.227500915527344 192 192 192
27.067699432373047 28.345699310302734 25.128599166870117 192 192 192
5.92140007019043 34.34170150756836 10.855999946594238 192 192 192
10.035499572753906 32.609500885009766 20.52549934387207 192 192 192
13.731300354003906 30.877300262451172 29.211700439453125 192 192 192
15.335100173950195 28.345699310302734 32.981201171875 192 192 192
0.8310250043869019 34.34170150756836 11.861100196838379 192 192 192
0.8310250043869019 32.609500885009766 22.342899322509766 192 192 192
0.8310250043869019 30.877300262451172 31.758899688720703 192 192 192
0.8310250043869019 28.345699310302734 35.845001220703125 192 192 192
-4.259349822998047 34.34170150756836 10.855999946594238 192 192 192
-8.373479843139648 32.609500885009766 20.52549934387207 192 192 192
-12.069199562072754 30.877300262451172 29.211700439453125 192 192 192
-13.67300033569336 28.345699310302734 32.981201171875 192 192 192
-8.377039909362793 34.34170150756836 8.100029945373535 192 192 192
-15.819199562072754 32.609500885009766 15.542200088500977 192 192 192
-22.504499435424805 30.877300262451172 22.227500915527344 192 192 192
-25.40559959411621 28.345699310302734 25.128599166870117 192 192 192
-11.133000373840332 34.34170150756836 3.982340097427368 192 192 192
-20.802499771118164 32.609500885009766 8.09646987915039 192 192 192
-29.48870086669922 30.877300262451172 11.792200088500977 192 192 192
-33.258201599121094 28.345699310302734 13.395999908447266 192 192 192
-12.138099670410156 34.34170150756836 -1.1080399751663208 192 192 192
-22.6200008392334 32.609500885009766 -1.1080399751663208 192 192 192
-32.0359001159668 30.877300262451172 -1.1080399751663208 192 192 192
-36.12200164794922 28.345699310302734 -1.1080399751663208 192 192 192
-11.133000373840332 34.34170150756836 -6.1984100341796875 192 192 192
-20.802499771118164 32.609500885009766 -10.3125 192 192 192
-29.48870086669922 30.877300262451172 -14.008299827575684 192 192 192
-33.258201599121094 28.345699310302734 -15.612099647521973 192 192 192
-8.377039909362793 34.34170150756836 -10.316100120544434 192 192 192
-15.819199562072754 32.609500885009766 -17.75819969177246 192 192 192
-22.504499435424805 30.877300262451172 -24.443500518798828 192 192 192
-25.40559959411621 28.345699310302734 -27.34469985961914 192 192 192
-4.259349822998047 34.34170150756836 -13.071999549865723 192 192 192
-8.373479843139648 32.609500885009766 -22.741600036621094 192 192 192
-12.069199562072754 30.877300262451172 -31.42770004272461 192 192 192
-13.67300033569336 28.345699310302734 -35.197200775146484 192 192 192
0.8310250043869019 34.34170150756836 -14.077099800109863 192 192 192
0.8310250043869019 32.609500885009766 -24.55900001525879 192 192 192
0.8310250043869019 30.877300262451172 -33.97489929199219 192 192 192
0.8310250043869019 28.345699310302734 -38.061100006103516 192 192 192
5.92140007019043 34.34170150756836 -13.071999549865723 192 192 192
10.035499572753906 32.609500885009766 -22.741600036621094 192 192 192
13.731300354003906 30.877300262451172 -31.42770004272461 192 192 192
15.335100173950195 28.345699310302734 -35.197200775146484 192 192 192
10.03909969329834 34.34170150756836 -10.316100120544434 192 192 192
17.481199264526367 32.609500885009766 -17.75819969177246 192 192 192
24.166500091552734 30.877300262451172 -24.443500518798828 192 192 192
27.067699432373047 28.345699310302734 -27.34469985961914 192 192 192
12.795000076293945 34.34170150756836 -6.1984100341796875 192 192 192
22.464599609375 32.609500885009766 -10.3125 192 192 192
31.150699615478516 30.877300262451172 -14.008299827575684 192 192 192
34.92020034790039 28.345699310302734 -15.612099647521973 192 192 192
